ply
format ascii 1.0
comment PCL generated
element vertex 286
property float x
property float y
property float z
property float intensity
element camera 1
property float view_px
property float view_py
property float view_pz
property float x_axisx
property float x_axisy
property float x_axisz
property float y_axisx
property float y_axisy
property float y_axisz
property float z_axisx
property float z_axisy
property float z_axisz
property float focal
property float scalex
property float scaley
property float centerx
property float centery
property int viewportx
property int viewporty
property float k1
property float k2
end_header
0.017027101 0.0567034 0.26399201 80.071045
0.0066283299 0.063536897 0.30224201 80.071045
0.0170298 0.0583154 0.26482499 80.071045
0.021204401 0.0590894 0.26862299 80.071045
0.0209959 0.056729399 0.26497301 80.071045
0.028529 0.052738901 0.27276701 80.071045
0.0207355 0.056737199 0.26919901 80.071045
-0.026305299 0.052690599 0.284116 80.071045
0.044754099 0.048890699 0.31215501 80.071045
-0.0104304 0.053438101 0.26097599 80.071045
-0.0027451699 0.051421601 0.25329301 80.071045
0.0091241403 0.055927999 0.25315201 80.071045
0.013495 0.053496901 0.256596 80.071045
0.0131208 0.0514419 0.25323299 80.071045
-0.0103166 0.052797198 0.26050499 80.071045
0.0167503 0.0540739 0.261457 80.071045
-0.0148526 0.053932801 0.26012799 80.071045
-0.013663 0.052034099 0.26487601 80.071045
-0.0142229 0.052797198 0.26371801 80.071045
-0.0153428 0.052797198 0.26495099 80.071045
-0.021107599 0.047800198 0.27295899 80.071045
0.028745901 0.052797198 0.27205899 80.071045
-0.0255845 0.0484455 0.27736399 80.071045
0.027538501 0.052248899 0.27277401 80.071045
0.0366733 0.051794302 0.280543 80.071045
-0.029853599 0.048896801 0.30598101 80.071045
-0.0130887 0.0487931 0.33080801 80.071045
0.029784899 0.048517801 0.32361501 80.071045
-0.0104172 0.049227901 0.25293401 80.071045
-0.0103166 0.050888799 0.257139 80.071045
-0.0142229 0.0496221 0.257139 80.071045
0.017027101 0.0501603 0.257139 80.071045
-0.0137656 0.0429556 0.26514 80.071045
-0.018127801 0.0455328 0.257139 80.071045
0.0251031 0.050480101 0.260061 80.071045
-0.018129099 0.051790599 0.268857 80.071045
-0.022035399 0.050375398 0.268857 80.071045
0.0369219 0.0492124 0.27632201 80.071045
0.0441484 0.044807099 0.30339199 80.071045
0.038206201 0.0488909 0.28057599 80.071045
-0.0292463 0.048368402 0.28461501 80.071045
-0.0291961 0.048347 0.29296499 80.071045
-0.029816501 0.049600899 0.30402401 80.071045
-0.030571301 0.0488909 0.304014 80.071045
0.0343321 0.041340102 0.339937 80.071045
0.0144941 0.020204101 0.36480001 212.66631
-0.010284 0.0457923 0.24935099 80.071045
-0.000162981 0.031563099 0.27863199 80.071045
-0.0049077901 0.0507879 0.24781699 80.071045
-0.018203501 0.051486 0.25059199 80.071045
0.0194565 0.0506601 0.247618 80.071045
0.023264 0.051000401 0.24984001 80.071045
-0.0155886 0.0488909 0.257139 80.071045
0.0200062 0.044799 0.257285 80.071045
0.018358201 0.0488909 0.257139 80.071045
0.026634401 0.0433698 0.26681301 80.071045
-0.0191414 0.0488909 0.26495099 80.071045
-0.022035399 0.0488909 0.26809099 80.071045
-0.022035399 0.046763301 0.26495099 80.071045
0.032652099 0.045240201 0.26495099 80.071045
0.031903502 0.0441962 0.26974201 80.071045
-0.025941599 0.045155201 0.272764 80.071045
-0.026153 0.045149799 0.27246001 80.071045
-0.025043599 0.044984698 0.268857 80.071045
-0.0229501 0.0488909 0.268857 80.071045
0.036873098 0.044762399 0.272266 80.071045
-0.026154799 0.044984698 0.272764 80.071045
-0.029950101 0.046365 0.27757001 80.071045
0.042351801 0.039564598 0.28572699 80.071045
-0.029665601 0.048482299 0.29209501 80.071045
0.044363901 0.043290101 0.300111 80.071045
0.044118699 0.042778201 0.307769 80.071045
0.044370901 0.044984698 0.304943 80.071045
0.040594801 0.044984698 0.31182599 80.071045
0.040371399 0.044913799 0.311959 80.071045
0.035845999 0.0443982 0.32341501 80.071045
0.035188898 0.0452452 0.323374 80.071045
0.036558401 0.044984698 0.32438499 80.071045
-0.0076311901 0.044984698 0.24541999 80.071045
-0.0103166 0.044984698 0.24833401 80.071045
-0.0103166 0.0435935 0.24541999 80.071045
0.0209332 0.0405531 0.25323299 80.071045
0.024989299 0.0386553 0.252949 80.071045
-0.025365001 0.0427939 0.25528699 80.071045
-0.0193015 0.044984698 0.26104501 80.071045
-0.022035399 0.044984698 0.263309 80.071045
-0.0186127 0.039874401 0.26633099 80.071045
0.030400099 0.042272601 0.25873399 80.071045
0.039189301 0.054593701 0.243149 80.071045
-0.0294849 0.040751301 0.271644 80.071045
-0.025941599 0.040415499 0.26495099 80.071045
-0.0242266 0.044984698 0.26495099 80.071045
0.028835399 0.043788701 0.26692 80.071045
0.046024799 0.044405401 0.27509001 80.071045
-0.035027899 0.041233901 0.28449601 80.071045
0.042264398 0.039745599 0.295847 80.071045
-0.042483099 0.031904802 0.29574099 80.071045
0.044679999 0.044984698 0.304014 80.071045
0.045998301 0.0410784 0.300107 80.071045
0.047206499 0.036741 0.30023199 80.071045
0.0458907 0.0410784 0.30792001 80.071045
0.046089601 0.0417444 0.31306601 80.071045
-0.029733701 0.038103901 0.32738501 80.071045
0.0330563 0.037049402 0.3391 80.071045
-0.019104499 0.0348082 0.24806499 80.071045
0.0209278 0.037115298 0.24934 80.071045
0.017027101 0.038255401 0.24932601 80.071045
-0.022035399 0.039407302 0.26104501 80.071045
0.028745901 0.037172198 0.25837201 80.071045
0.029748 0.037575699 0.25559899 80.071045
0.025431599 0.0410784 0.257139 80.071045
-0.025941599 0.037802599 0.26104501 80.071045
-0.0283776 0.037172198 0.26495099 80.071045
0.0357874 0.034753799 0.26593801 80.071045
0.0355427 0.037172198 0.26495099 80.071045
-0.037204601 0.0432778 0.27173001 80.071045
-0.027160499 0.034945801 0.273408 80.071045
-0.032902099 0.040647101 0.28114301 80.071045
-0.037665501 0.037209 0.28448099 80.071045
0.0420518 0.040946402 0.28553799 80.071045
0.042989999 0.040401001 0.28054199 80.071045
-0.038742699 0.042367902 0.29232001 80.071045
-0.038947102 0.037149198 0.292294 80.071045
0.049014799 0.037898902 0.295394 80.071045
0.044915602 0.036905199 0.31147301 80.071045
-0.036457401 0.035887498 0.31551501 80.071045
0.0445171 0.037275199 0.316668 80.071045
-0.0306726 0.037172198 0.32745099 80.071045
-0.029868901 0.037183601 0.331368 80.071045
0.0326715 0.037187699 0.34027299 80.071045
0.0165808 0.037172198 0.24932601 80.071045
0.0131209 0.037172198 0.25108999 80.071045
0.0131209 0.035408702 0.24932601 80.071045
-0.031411499 0.034533501 0.255972 80.071045
-0.023733299 0.038447 0.256908 80.071045
-0.0437974 0.0441163 0.24809299 80.071045
0.0234027 0.036885001 0.254195 80.071045
-0.025294799 0.035617799 0.26203901 80.071045
0.032652099 0.037172198 0.25967699 80.071045
0.032652099 0.034867 0.257139 80.071045
-0.029847899 0.035214402 0.26495099 80.071045
0.036458202 0.029299799 0.261127 80.071045
0.033823699 0.037172198 0.26104501 80.071045
-0.0310598 0.0332659 0.26495099 80.071045
-0.037252501 0.0290775 0.27477199 80.071045
-0.035373699 0.034544799 0.27540699 80.071045
0.040097799 0.037015401 0.26926601 80.071045
0.040464599 0.035462901 0.268857 80.071045
-0.038348801 0.0341786 0.28015599 80.071045
0.047049601 0.0290471 0.28428301 80.071045
0.0517716 0.025646901 0.28838 80.071045
-0.038863201 0.037172198 0.288389 80.071045
-0.044864699 0.034828201 0.288205 80.071045
0.044709399 0.0307512 0.29606199 80.071045
0.048649799 0.037172198 0.29620099 80.071045
0.055260502 0.0246525 0.301099 80.071045
-0.040212899 0.0332417 0.31572801 80.071045
-0.037326802 0.033024698 0.32014301 80.071045
0.041315101 0.030554 0.33561099 80.071045
-0.030853299 0.0332659 0.331357 80.071045
-0.0310016 0.035894498 0.33965001 80.071045
-0.0296496 0.029145701 0.33874601 80.071045
0.032652099 0.034319099 0.34307599 80.071045
0.033123799 0.033290599 0.34305301 80.071045
0.032652099 0.0332659 0.34466299 80.071045
-0.0107502 0.031284802 0.247325 80.071045
-0.018129099 0.0332659 0.248739 80.071045
-0.019775299 0.034732401 0.24133199 80.071045
0.0032114701 0.034402799 0.243507 80.071045
0.0130547 0.029737299 0.24476799 80.071045
0.0131209 0.0332659 0.247299 80.071045
-0.018818799 0.0332659 0.24932601 80.071045
-0.0199451 0.028501401 0.249898 80.071045
-0.0298567 0.0293747 0.255225 80.071045
0.028735001 0.029587699 0.253131 80.071045
-0.0314699 0.0293597 0.257139 80.071045
-0.033754099 0.030687699 0.26495099 80.071045
-0.033059198 0.0273274 0.26575699 80.071045
0.036900502 0.0332659 0.26495099 80.071045
0.040464599 0.0332659 0.268139 80.071045
-0.037660401 0.031428099 0.27667001 80.071045
0.038465399 0.026317 0.27678001 80.071045
0.038422201 0.031550799 0.28086001 80.071045
0.0503189 0.0355062 0.26993501 80.071045
0.041779902 0.028797301 0.27338701 80.071045
-0.0383338 0.029089 0.27675501 80.071045
0.047775801 0.0292495 0.27933699 80.071045
0.0462569 0.0293597 0.27667001 80.071045
-0.0415661 0.029404299 0.28448299 80.071045
-0.0416159 0.029382 0.284475 80.071045
-0.040909499 0.028889701 0.28873801 80.071045
-0.041566599 0.031655699 0.29229501 80.071045
0.052234199 0.0250344 0.28837901 80.071045
-0.045842301 0.0304069 0.295111 80.071045
-0.045472901 0.0295444 0.300107 80.071045
-0.045344401 0.029252101 0.29990301 80.071045
-0.046758398 0.0297499 0.30826101 80.071045
-0.041139599 0.023491001 0.30870301 212.66629
-0.0247247 0.028369701 0.337742 80.071045
0.0403798 0.029282 0.33548599 80.071045
-0.0220105 0.0270468 0.245437 80.071045
-0.0198918 0.0290062 0.24617 80.071045
-0.021196499 0.024318401 0.244954 80.071045
0.00193749 0.028722901 0.246462 80.071045
0.00162938 0.020005999 0.24421 212.66629
0.0092200805 0.0274959 0.24546599 80.071045
-0.032175701 0.029315099 0.24347 80.071045
-0.029847899 0.027987899 0.253232 80.071045
0.019783201 0.0285642 0.25258699 80.071045
0.028754201 0.023884101 0.249236 80.071045
-0.033606399 0.029206799 0.26343 80.071045
-0.032529999 0.025264099 0.25336301 80.071045
0.0302258 0.0201519 0.25523999 212.66629
0.032652099 0.0254534 0.25518101 80.071045
0.032652099 0.0293597 0.25706601 80.071045
0.035147499 0.019765999 0.259579 212.66629
0.034320399 0.0254534 0.257139 80.071045
0.0327264 0.0293597 0.257139 80.071045
0.040458001 0.0293546 0.26495501 80.071045
0.045529701 0.022603501 0.26403701 212.66629
0.044356901 0.025132 0.26907101 80.071045
0.044769298 0.0254211 0.272816 80.071045
0.046986099 0.029053699 0.281093 80.071045
0.048084699 0.024506301 0.28066701 80.071045
0.052007802 0.025301499 0.28721201 80.071045
0.055679299 0.0254212 0.29611 80.071045
-0.044982899 0.0246395 0.30762401 80.071045
0.0092463903 0.0265029 0.23838 80.071045
0.0198055 0.0214331 0.245455 212.66629
0.023087099 0.0254534 0.24541999 80.071045
0.0240668 0.0214606 0.248055 212.66629
0.024839601 0.0242831 0.24932601 80.071045
0.040076502 0.0215472 0.26104501 212.66629
0.045630101 0.0215472 0.268857 212.66629
0.051050998 0.023023101 0.27381599 212.66629
0.052527498 0.022278501 0.28015199 212.66629
0.055138599 0.017668599 0.280462 212.66629
0.055703901 0.0229201 0.30009499 212.66629
0.0564164 0.0254534 0.300107 80.071045
0.040003199 0.0288535 0.33503899 80.071045
-0.0091423802 0.020885 0.401696 212.66631
0.0107317 0.0221863 0.239177 212.66629
0.0170429 0.021530099 0.241941 212.66629
0.0319921 0.021465899 0.24951699 212.66629
0.0438409 0.0172756 0.26286599 212.66629
0.045660999 0.0173505 0.26531899 212.66629
0.050690498 0.017542399 0.27803501 212.66629
-0.078920901 0.0173009 0.354132 212.66629
-0.099845201 0.020217201 0.40165499 212.66629
-0.112073 0.0179608 0.40146399 212.66629
-0.080769397 0.0208441 0.40161601 212.66629
-0.0126834 0.0062925098 0.206743 212.66629
-0.0509068 0.017571099 0.246324 212.66629
-0.065540999 0.0172092 0.27456301 212.66629
0.058070801 0.0091095399 0.347792 212.66631
0.026329 0.013946 0.397634 212.66631
-0.12301 0.0234826 0.401252 212.66629
0.025326701 0.0138097 0.401669 212.66631
0.049543198 0.0089644603 0.39785799 212.66631
0.077357903 -0.00058813102 0.26655501 212.66631
-0.132634 0.0106422 0.329988 212.66628
0.091219299 0.0043490999 0.35328701 212.66631
0.073821098 0.0041626501 0.393996 212.66631
0.072812997 0.0058835601 0.39768499 212.66631
-0.109674 0.0099654701 0.235816 212.66628
0.041246202 0.0026702799 0.227557 212.66629
0.074625097 0.0019290301 0.31517899 212.66631
0.133873 -0.0069651799 0.38992801 212.66632
0.114315 -0.00359465 0.39389101 212.66632
-0.064981297 0.0063888398 0.17083 212.66628
-0.13490599 0.00131618 0.186332 212.66628
0.126021 -0.0083351796 0.203943 212.66631
0.12540001 0.00050370197 0.393812 212.66632
0.074102797 0.0020316199 0.178675 212.66629
0.132843 -0.0042799199 0.28830001 212.66631
0.122558 -0.00628825 0.39000601 212.66632
0.12582199 -0.00764318 0.39475799 212.66632
0.12582301 -0.0076440098 0.39475799 212.66632
-0.065209903 -0.0085044 0.116053 212.66628
-0.0044926698 -0.00119937 0.14491799 212.66629
-0.14184301 -0.0059803198 0.144794 212.66628
0.15858801 -0.0137145 0.38604 212.66632
0.15405101 -0.0136106 0.38995099 212.66632
0.084485598 -0.0099501703 0.129877 212.66629
0.0246261 -0.0161191 0.108246 212.66629
0.13575 -0.017803 0.133498 212.66631
0 0 0 1 0 0 0 1 0 0 0 1 0 0 0 0 0 286 1 0 0
