ply
format ascii 1.0
element vertex 286
property float x
property float y
property float z
property uchar red
property uchar green
property uchar blue
property float intensity
end_header
0.0457088 0.030398 0.264922 255 255 255 0.987288 
0.0398473 0.0316947 0.304695 255 255 255 1 
0.0456295 0.0318988 0.265939 255 255 255 0.995763 
0.0501563 0.0328282 0.26927 255 255 255 0.991525 
0.0497415 0.030859 0.265411 255 255 255 0.995763 
0.0586894 0.02713 0.271692 255 255 255 0.983051 
0.0500579 0.0303867 0.269607 255 255 255 1 
0.0063147 0.0184473 0.2895 255 255 255 0.991525 
0.0804547 0.0213969 0.308064 255 255 255 1 
0.0186945 0.0237725 0.264874 255 255 255 0.991525 
0.025453 0.0236371 0.25613 255 255 255 0.995763 
0.0365603 0.0297021 0.255104 255 255 255 0.995763 
0.0416198 0.0275379 0.257672 255 255 255 0.987288 
0.041044 0.0258165 0.254154 255 255 255 0.978814 
0.01882 0.0232061 0.264318 255 255 255 1 
0.0454107 0.0280367 0.262138 255 255 255 0.991525 
0.0141711 0.0237489 0.264634 255 255 255 0.995763 
0.0162149 0.0215403 0.268936 255 255 255 0.978814 
0.0154148 0.0223379 0.267956 255 255 255 0.957627 
0.0144809 0.0220563 0.269306 255 255 255 1 
0.0105033 0.0155087 0.277284 255 255 255 1 
0.0587996 0.0272914 0.270976 255 255 255 0.983051 
0.00662072 0.0150734 0.282243 255 255 255 1 
0.0577756 0.0265122 0.271759 255 255 255 1 
0.0678675 0.0264866 0.278252 255 255 255 0.995763 
0.00625156 0.011928 0.311007 255 255 255 1 
0.0261187 0.0114889 0.333424 255 255 255 1 
0.0673352 0.0177925 0.321119 255 255 255 1 
0.0181255 0.0204727 0.256437 255 255 255 0.987288 
0.0185941 0.0216801 0.26077 255 255 255 0.991525 
0.0149061 0.0199022 0.261088 255 255 255 0.991525 
0.0455703 0.0246731 0.257373 255 255 255 0.995763 
0.0172479 0.012555 0.268102 255 255 255 0.991525 
0.0115609 0.0153437 0.261062 255 255 255 0.995763 
0.0538696 0.0257766 0.259314 255 255 255 1 
0.0123929 0.0202756 0.273368 255 255 255 1 
0.00872282 0.0183513 0.273669 255 255 255 0.995763 
0.0678515 0.0244208 0.273749 255 255 255 0.987288 
0.0791639 0.0182136 0.299006 255 255 255 0.966102 
0.0697305 0.0238308 0.277746 255 255 255 0.991525 
0.00401324 0.0137377 0.28982 255 255 255 1 
0.0051983 0.012845 0.298037 255 255 255 1 
0.0059373 0.0128326 0.30916 255 255 255 0.987288 
0.0052796 0.0120317 0.309155 255 255 255 0.987288 
0.0748897 0.00962126 0.335773 255 255 255 1 
0.0613129 -0.0165087 0.360091 255 255 255 1 
0.0181858 0.0174831 0.252472 255 255 255 1 
0.0338328 0.00175812 0.27836 255 255 255 1 
0.02266 0.0232955 0.25092 255 255 255 1 
0.00987793 0.021887 0.255347 255 255 255 0.995763 
0.0466068 0.0264968 0.247761 255 255 255 1 
0.0506112 0.027115 0.249531 255 255 255 0.995763 
0.0136516 0.0189965 0.261164 255 255 255 0.987288 
0.0491681 0.0197803 0.256503 255 255 255 0.995763 
0.0470328 0.0236032 0.257058 255 255 255 0.995763 
0.0571517 0.0182694 0.264914 255 255 255 0.995763 
0.0112181 0.0176925 0.26929 255 255 255 0.987288 
0.00879844 0.0169694 0.272733 255 255 255 0.944915 
0.00862969 0.0152038 0.26938 255 255 255 0.987288 
0.0625902 0.0211245 0.26258 255 255 255 0.991525 
0.0626305 0.0194904 0.267263 255 255 255 0.995763 
0.00604334 0.0122675 0.277354 255 255 255 1 
0.00579486 0.0122655 0.277079 255 255 255 0.995763 
0.00641681 0.0126324 0.273375 255 255 255 0.987288 
0.00800293 0.0167647 0.273598 255 255 255 0.987288 
0.0677913 0.020457 0.269217 255 255 255 1 
0.00585431 0.0120706 0.277359 255 255 255 1 
0.00260747 0.0124097 0.282721 255 255 255 0.995763 
0.0756342 0.0146637 0.281182 255 255 255 0.995763 
0.0046022 0.0130061 0.297254 255 255 255 0.961864 
0.079114 0.0170936 0.295563 255 255 255 0.991525 
0.0799741 0.0157504 0.303075 255 255 255 1 
0.0795717 0.0182556 0.300529 255 255 255 0.991525 
0.0767925 0.0170191 0.307767 255 255 255 1 
0.0765995 0.0169049 0.307916 255 255 255 0.995763 
0.0737664 0.0145776 0.319686 255 255 255 0.957627 
0.0730123 0.0153272 0.319829 255 255 255 0.987288 
0.0745277 0.01515 0.320627 255 255 255 1 
0.0203586 0.0174611 0.24818 255 255 255 0.987288 
0.0181134 0.0167901 0.251376 255 255 255 0.957627 
0.0178862 0.0157261 0.248336 255 255 255 0.995763 
0.0500434 0.0161496 0.251882 255 255 255 0.995763 
0.0542229 0.0148602 0.25088 255 255 255 0.991525 
0.00452428 0.0118582 0.259779 255 255 255 0.991525 
0.0110031 0.0142335 0.264985 255 255 255 0.978814 
0.00862201 0.0136243 0.267546 255 255 255 0.978814 
0.0130159 0.00873647 0.269486 255 255 255 0.987288 
0.059891 0.0185495 0.256366 255 255 255 0.995763 
0.0649285 0.0335199 0.241451 255 255 255 0.995763 
0.00293979 0.007566 0.276142 255 255 255 0.991525 
0.00555641 0.00842017 0.269079 255 255 255 0.987288 
0.00669014 0.0131542 0.269429 255 255 255 0.983051 
0.0592799 0.0189695 0.264804 255 255 255 0.983051 
0.077217 0.0210501 0.270849 255 255 255 1 
-0.000825182 0.00593711 0.289533 255 255 255 0.991525 
0.0768996 0.0137654 0.291184 255 255 255 0.995763 
-0.00550174 -0.00544818 0.300376 255 255 255 0.995763 
0.0797495 0.0183953 0.299576 255 255 255 0.987288 
0.0809882 0.015137 0.295092 255 255 255 0.983051 
0.0827179 0.0110148 0.29454 255 255 255 0.995763 
0.0819426 0.0143004 0.302802 255 255 255 0.991525 
0.082756 0.0144421 0.307929 255 255 255 0.995763 
0.0105795 -0.000940196 0.330763 255 255 255 0.991525 
0.0740406 0.00530921 0.33458 255 255 255 0.978814 
0.0106664 0.00560049 0.250934 255 255 255 0.978814 
0.0499256 0.0131717 0.247629 255 255 255 0.987288 
0.0459501 0.013767 0.248226 255 255 255 0.978814 
0.00898943 0.00836796 0.264636 255 255 255 0.991525 
0.0588322 0.0133384 0.255588 255 255 255 1 
0.0593925 0.0141637 0.252784 255 255 255 0.987288 
0.0549333 0.0168666 0.25525 255 255 255 0.995763 
0.00534242 0.00625701 0.264913 255 255 255 0.966102 
0.00355331 0.00489447 0.268979 255 255 255 0.991525 
0.0670757 0.0111155 0.261895 255 255 255 0.995763 
0.0664086 0.0135686 0.261247 255 255 255 0.991525 
-0.00494522 0.00899834 0.277469 255 255 255 0.995763 
0.00616707 0.00197656 0.276891 255 255 255 0.995763 
0.000881169 0.00600026 0.285901 255 255 255 0.995763 
-0.00293402 0.00161564 0.289347 255 255 255 0.991525 
0.0751464 0.0160041 0.281201 255 255 255 1 
0.0754569 0.0161198 0.276099 255 255 255 0.991525 
-0.00355352 0.00572702 0.297828 255 255 255 0.995763 
-0.00312679 0.000560826 0.297191 255 255 255 0.995763 
0.0836995 0.0129099 0.289697 255 255 255 0.970339 
0.0819707 0.00968305 0.305912 255 255 255 0.995763 
0.00262519 -0.0027873 0.319612 255 255 255 0.995763 
0.0822391 0.00944692 0.311123 255 255 255 1 
0.00977794 -0.00199242 0.330828 255 255 255 0.983051 
0.0110984 -0.00228421 0.334591 255 255 255 1 
0.0738047 0.00526983 0.335799 255 255 255 1 
0.0456423 0.0126393 0.248148 255 255 255 0.978814 
0.0424794 0.0119842 0.250304 255 255 255 0.991525 
0.0424533 0.0104325 0.248351 255 255 255 0.978814 
-0.000329323 0.00282791 0.260178 255 255 255 0.995763 
0.00687458 0.00762676 0.260649 255 255 255 0.983051 
-0.0147372 0.0114165 0.255082 255 255 255 1 
0.053046 0.0127698 0.252084 255 255 255 0.991525 
0.00637761 0.00408786 0.265548 255 255 255 0.991525 
0.0628504 0.0137312 0.256401 255 255 255 0.978814 
0.0627849 0.0117273 0.25362 255 255 255 0.991525 
0.00234433 0.00276623 0.268918 255 255 255 1 
0.0677421 0.00633967 0.256409 255 255 255 0.995763 
0.0641882 0.0137463 0.257607 255 255 255 0.991525 
0.00138831 0.000682205 0.268827 255 255 255 1 
-0.00286184 -0.00531759 0.278741 255 255 255 0.987288 
-0.0015895 0.000256658 0.279805 255 255 255 0.987288 
0.0714923 0.0135783 0.264928 255 255 255 0.995763 
0.0719853 0.0121417 0.264291 255 255 255 0.987288 
-0.00382629 -0.00100746 0.284799 255 255 255 0.991525 
0.0813299 0.00509182 0.27791 255 255 255 0.995763 
0.0869405 0.00195188 0.28096 255 255 255 1 
-0.00357699 0.0010057 0.293337 255 255 255 0.991525 
-0.00921993 -0.00209854 0.293596 255 255 255 0.995763 
0.080421 0.00521381 0.290004 255 255 255 1 
0.083538 0.0120595 0.290447 255 255 255 0.991525 
0.0922176 0.000107564 0.292947 255 255 255 1 
-0.000718791 -0.00592584 0.319954 255 255 255 0.995763 
0.00274459 -0.00621245 0.323928 255 255 255 1 
0.0824741 0.000398088 0.329352 255 255 255 0.995763 
0.0106028 -0.00627616 0.334222 255 255 255 1 
0.0112644 -0.00457921 0.34273 255 255 255 1 
0.0132876 -0.0109492 0.340853 255 255 255 1 
0.074513 0.0021463 0.338213 255 255 255 0.991525 
0.0750981 0.00119951 0.338008 255 255 255 0.966102 
0.0748557 0.000941783 0.339648 255 255 255 1 
0.0192073 0.00334097 0.248765 255 255 255 0.987288 
0.0119036 0.00414255 0.251292 255 255 255 0.987288 
0.00910225 0.00614315 0.244373 255 255 255 0.987288 
0.032041 0.00870897 0.243695 255 255 255 0.987288 
0.0424557 0.00531585 0.243178 255 255 255 0.978814 
0.0424374 0.00853474 0.246093 255 255 255 0.995763 
0.011305 0.0039872 0.251953 255 255 255 0.995763 
0.0108514 -0.00091956 0.252073 255 255 255 0.991525 
0.00172221 -0.0019647 0.258626 255 255 255 0.983051 
0.0590277 0.00641648 0.249501 255 255 255 0.983051 
0.000397436 -0.00239975 0.260705 255 255 255 0.995763 
-0.000949234 -0.00222333 0.268839 255 255 255 0.987288 
0.000249933 -0.00552422 0.269139 255 255 255 0.995763 
0.0682162 0.00990457 0.260606 255 255 255 0.987288 
0.0721536 0.0100528 0.263316 255 255 255 0.978814 
-0.00328971 -0.00325694 0.280946 255 255 255 0.991525 
0.0722008 0.00202674 0.271224 255 255 255 0.987288 
0.0720789 0.0067477 0.275886 255 255 255 1 
0.0818164 0.0134082 0.264166 255 255 255 0.995763 
0.0746997 0.00527696 0.267782 255 255 255 0.991525 
-0.00365741 -0.00566163 0.280827 255 255 255 0.991525 
0.0813484 0.00591012 0.272974 255 255 255 0.991525 
0.0794795 0.00609315 0.270544 255 255 255 0.983051 
-0.00582529 -0.00660268 0.288869 255 255 255 1 
-0.00587264 -0.00663056 0.288865 255 255 255 0.995763 
-0.00453996 -0.00746819 0.292919 255 255 255 0.995763 
-0.005038 -0.00520666 0.29684 255 255 255 0.991525 
0.0874694 0.00141135 0.280829 255 255 255 1 
-0.00870927 -0.0073134 0.299979 255 255 255 0.995763 
-0.00756373 -0.00863858 0.304751 255 255 255 1 
-0.00742969 -0.00888763 0.304499 255 255 255 1 
-0.00774615 -0.00946843 0.312964 255 255 255 1 
-0.0014039 -0.0149184 0.311957 255 255 255 1 
0.018088 -0.0109397 0.339174 255 255 255 1 
0.0816912 -0.000968792 0.329188 255 255 255 0.983051 
0.00839101 -0.00216351 0.24775 255 255 255 0.983051 
0.0103369 -2.28118e-05 0.248455 255 255 255 0.987288 
0.00945593 -0.00469011 0.246844 255 255 255 1 
0.0318763 0.00262966 0.246068 255 255 255 1 
0.0323221 -0.00576266 0.242824 255 255 255 0.995763 
0.0390508 0.00251394 0.244056 255 255 255 0.991525 
-0.00214612 -0.00110139 0.247319 255 255 255 0.991525 
0.00162816 -0.00312003 0.256492 255 255 255 0.991525 
0.0502751 0.00425063 0.249924 255 255 255 1 
0.059208 0.00120997 0.244967 255 255 255 0.987288 
-0.000831261 -0.00350217 0.267142 255 255 255 0.987288 
-0.000661995 -0.00618112 0.256614 255 255 255 1 
0.0619212 -0.00289876 0.250249 255 255 255 0.983051 
0.0636578 0.00265946 0.250543 255 255 255 0.995763 
0.0634411 0.00630943 0.252876 255 255 255 0.983051 
0.0673964 -0.00306754 0.253881 255 255 255 0.991525 
0.065564 0.00267986 0.25227 255 255 255 0.987288 
0.0635241 0.00631183 0.252939 255 255 255 0.983051 
0.0721881 0.0065337 0.259703 255 255 255 0.983051 
0.0778674 0.000667695 0.257363 255 255 255 1 
0.0770914 0.00246988 0.262772 255 255 255 0.991525 
0.0779701 0.00241665 0.266447 255 255 255 0.991525 
0.0808338 0.00542532 0.274775 255 255 255 1 
0.0824064 0.00113936 0.273669 255 255 255 0.991525 
0.0870561 0.00176654 0.279739 255 255 255 0.95339 
0.0918594 0.00144656 0.288075 255 255 255 0.995763 
-0.00546851 -0.014195 0.311499 255 255 255 0.991525 
0.0382352 0.00228475 0.236951 255 255 255 0.991525 
0.0501917 -0.0020212 0.242026 255 255 255 0.995763 
0.0529276 0.0023884 0.242084 255 255 255 0.995763 
0.0547315 -0.00168937 0.244075 255 255 255 0.991525 
0.0553225 0.00106236 0.245578 255 255 255 0.995763 
0.0722268 -0.000798149 0.254946 255 255 255 0.991525 
0.078748 -0.000866391 0.26197 255 255 255 0.991525 
0.0845729 0.000801498 0.26638 255 255 255 0.995763 
0.0869747 -0.000398273 0.272352 255 255 255 0.995763 
0.090142 -0.00461799 0.27178 255 255 255 1 
0.0927269 -0.0014333 0.291693 255 255 255 0.987288 
0.0931227 0.0011578 0.291928 255 255 255 0.978814 
0.0813121 -0.00139501 0.32874 255 255 255 0.995763 
0.0429948 -0.0229271 0.399381 255 255 255 1 
0.0403261 -0.00185003 0.23703 255 255 255 0.983051 
0.0469866 -0.00193083 0.23891 255 255 255 0.987288 
0.0627225 -0.000762487 0.244557 255 255 255 0.995763 
0.0766923 -0.00468705 0.255764 255 255 255 0.987288 
0.0788059 -0.00462434 0.25797 255 255 255 0.995763 
0.0854539 -0.0050906 0.269912 255 255 255 0.987288 
-0.0316421 -0.030923 0.360527 255 255 255 1 
-0.0461215 -0.0358893 0.410231 255 255 255 1 
-0.0578986 -0.0397514 0.411247 255 255 255 1 
-0.0274447 -0.0326789 0.407961 255 255 255 1 
0.0148223 -0.017273 0.205973 255 255 255 1 
-0.0187573 -0.0155131 0.250965 255 255 255 1 
-0.0292717 -0.0208264 0.28051 255 255 255 1 
0.103198 -0.0197356 0.336712 255 255 255 1 
0.0781632 -0.0245222 0.390243 255 255 255 1 
-0.06935 -0.0357735 0.413034 255 255 255 1 
0.0777417 -0.025217 0.394323 255 255 255 1 
0.101624 -0.0263031 0.387049 255 255 255 1 
0.112312 -0.0181252 0.253167 255 255 255 1 
-0.0869312 -0.0422317 0.342427 255 255 255 1 
0.137115 -0.0205051 0.337536 255 255 255 1 
0.125554 -0.0273327 0.379722 255 255 255 0.995763 
0.124855 -0.0261622 0.383688 255 255 255 1 
-0.0770512 -0.0298751 0.246794 255 255 255 1 
0.071116 -0.0157128 0.219514 255 255 255 1 
0.115919 -0.0211319 0.301706 255 255 255 1 
0.185399 -0.0297181 0.367094 255 255 255 1 
0.166297 -0.0294686 0.373775 255 255 255 1 
-0.0414893 -0.0204967 0.176932 255 255 255 1 
-0.107532 -0.0366139 0.200043 255 255 255 1 
0.152605 -0.0125663 0.184655 255 255 255 0.995763 
0.176691 -0.0239185 0.372856 255 255 255 1 
0.0968689 -0.00674052 0.167305 255 255 255 1 
0.17027 -0.0165205 0.267428 255 255 255 1 
0.174201 -0.0305949 0.368622 255 255 255 0.995763 
0.17822 -0.0319867 0.372744 255 255 255 1 
0.178221 -0.0319874 0.372744 255 255 255 1 
-0.047346 -0.0294368 0.121181 255 255 255 1 
0.015393 -0.0170376 0.143163 255 255 255 1 
-0.119107 -0.0403733 0.159072 255 255 255 1 
0.209991 -0.0326042 0.359452 255 255 255 1 
0.206048 -0.033529 0.363867 255 255 255 0.995763 
0.101906 -0.0120015 0.116516 255 255 255 1 
0.0408548 -0.0239261 0.101695 255 255 255 1 
0.153758 -0.0131619 0.112925 255 255 255 1 
